 2751.67 2748.54 2745.80 2743.49 2743.49 2744.00 2744.97 2746.00 2746.90 2747.67 2747.81 2747.47 2746.66 2744.81 2743.70 2743.68 2748.26 2751.95 2754.76 2755.41 2754.77 2753.15 2750.07 2746.42 2742.17 2736.56 2731.86 2727.76 2724.38 2720.32 2715.57 2709.46 2704.07 2699.29 2695.58 2695.56 2697.20 2700.17 2703.58 2707.95 2714.27 2719.61 2724.47 2728.82 2733.61 2738.22 2742.33 2745.50 2748.65 2751.99 2755.83 2758.74 2760.11 2760.59 2760.93 2761.20 2761.37 2761.45 2761.41 2761.31 2761.19 2761.07 2764.39 2769.56 2773.07
 2756.37 2753.87 2751.62 2749.63 2749.58 2750.07 2751.04 2752.06 2752.98 2753.79 2754.06 2753.86 2753.21 2751.49 2750.13 2749.52 2753.17 2756.35 2758.91 2759.16 2758.20 2756.32 2753.02 2749.10 2744.68 2739.31 2734.18 2729.39 2725.50 2721.33 2716.67 2710.71 2705.11 2700.19 2696.98 2697.69 2699.95 2703.05 2707.41 2712.44 2718.23 2723.02 2727.72 2732.73 2737.81 2742.49 2746.40 2749.80 2753.29 2757.05 2760.60 2763.38 2765.04 2765.78 2766.38 2766.89 2767.12 2767.15 2766.96 2766.72 2766.52 2766.35 2769.90 2775.41 2779.14
 2761.05 2759.23 2757.54 2756.00 2755.93 2756.38 2757.31 2758.29 2759.19 2760.00 2760.40 2760.35 2759.86 2758.30 2756.67 2755.42 2758.08 2760.71 2762.98 2762.83 2761.55 2759.39 2755.87 2751.71 2747.10 2741.99 2736.46 2730.99 2726.61 2722.33 2717.76 2711.96 2706.24 2701.28 2698.54 2699.90 2702.74 2706.02 2711.21 2716.80 2722.04 2726.42 2731.06 2736.73 2742.03 2746.77 2750.57 2754.27 2758.10 2762.18 2765.44 2768.10 2770.02 2771.05 2771.90 2772.61 2772.85 2772.83 2772.56 2772.23 2771.96 2771.75 2775.41 2781.05 2784.88
 2766.18 2764.62 2763.38 2762.45 2762.68 2763.27 2764.20 2765.06 2765.78 2766.34 2766.58 2766.45 2765.96 2764.48 2762.98 2761.80 2763.78 2765.62 2767.08 2766.40 2764.60 2761.89 2757.69 2753.11 2748.31 2743.40 2737.80 2732.13 2727.54 2723.18 2718.65 2713.17 2708.39 2704.34 2701.83 2703.02 2705.86 2709.87 2714.95 2720.12 2724.78 2729.72 2735.11 2741.33 2746.45 2751.10 2755.27 2759.67 2763.87 2767.60 2770.64 2773.21 2775.22 2776.66 2777.76 2778.45 2778.45 2778.40 2778.37 2778.10 2777.83 2777.58 2780.89 2786.07 2789.62
 2771.34 2770.02 2769.21 2768.90 2769.44 2770.17 2771.09 2771.83 2772.34 2772.65 2772.72 2772.53 2772.04 2770.65 2769.27 2768.13 2769.41 2770.45 2771.09 2769.87 2767.55 2764.31 2759.40 2754.41 2749.42 2744.71 2739.09 2733.26 2728.44 2723.96 2719.45 2714.30 2710.28 2707.03 2704.85 2706.05 2708.98 2713.56 2718.46 2723.23 2727.48 2733.05 2739.18 2745.76 2750.86 2755.55 2760.10 2765.03 2769.48 2772.92 2775.76 2778.26 2780.35 2782.03 2783.26 2783.89 2783.70 2783.59 2783.69 2783.67 2783.56 2783.35 2786.46 2791.26 2794.52
 2777.14 2775.75 2774.91 2774.65 2774.99 2775.68 2776.68 2777.50 2778.07 2778.42 2778.44 2778.28 2777.91 2776.82 2775.41 2773.92 2774.22 2774.38 2774.21 2772.33 2769.53 2765.85 2760.16 2754.86 2749.87 2745.32 2739.94 2734.28 2729.18 2724.37 2719.67 2714.91 2710.89 2707.73 2706.49 2708.57 2712.12 2716.55 2720.94 2725.39 2730.01 2736.55 2743.36 2749.59 2755.19 2760.47 2765.40 2770.28 2774.60 2777.91 2780.66 2783.13 2785.25 2786.73 2787.76 2788.25 2788.01 2787.81 2787.78 2788.49 2788.94 2788.98 2792.23 2796.82 2799.79
 2782.96 2781.56 2780.73 2780.51 2780.68 2781.30 2782.35 2783.21 2783.84 2784.24 2784.22 2784.07 2783.78 2782.93 2781.50 2779.73 2779.06 2778.32 2777.33 2774.78 2771.49 2767.40 2760.93 2755.32 2750.29 2745.87 2740.68 2735.14 2729.76 2724.62 2719.73 2715.41 2711.59 2708.75 2708.58 2711.27 2715.11 2719.31 2723.32 2727.62 2732.85 2739.96 2747.14 2753.26 2759.48 2765.46 2770.84 2775.42 2779.42 2782.64 2785.40 2787.87 2789.95 2791.24 2792.11 2792.51 2792.30 2792.11 2792.05 2793.08 2793.89 2794.30 2797.77 2802.29 2805.07
 2789.22 2788.33 2787.81 2787.66 2787.67 2788.02 2788.71 2789.33 2789.91 2790.44 2790.37 2790.10 2789.63 2788.69 2787.33 2785.65 2784.01 2782.31 2780.41 2777.22 2773.42 2768.88 2761.79 2755.79 2750.57 2746.17 2740.95 2735.31 2729.73 2724.30 2719.25 2715.51 2712.58 2710.83 2712.09 2714.54 2717.64 2721.40 2725.37 2730.06 2736.57 2743.20 2749.87 2756.51 2763.70 2770.62 2776.61 2780.33 2783.56 2786.80 2789.79 2792.35 2794.23 2795.35 2796.14 2796.56 2796.54 2796.53 2796.63 2797.27 2798.10 2799.10 2802.95 2807.63 2810.36
 2795.57 2795.11 2794.84 2794.77 2794.68 2794.82 2795.21 2795.61 2796.12 2796.70 2796.57 2796.15 2795.46 2794.32 2792.88 2791.15 2788.60 2785.93 2783.08 2779.24 2774.96 2770.05 2762.49 2756.20 2750.82 2746.45 2741.19 2735.47 2729.80 2724.24 2719.17 2715.94 2713.95 2713.29 2715.51 2717.81 2720.39 2723.71 2727.57 2732.52 2740.01 2746.27 2752.61 2760.07 2767.64 2774.79 2780.93 2784.34 2787.39 2790.87 2794.08 2796.75 2798.53 2799.58 2800.34 2800.82 2801.04 2801.26 2801.54 2801.94 2802.70 2803.91 2807.93 2812.85 2815.76
 2802.50 2801.95 2801.65 2801.64 2801.78 2802.02 2802.37 2802.64 2802.93 2803.24 2802.92 2802.23 2801.17 2799.49 2797.48 2795.15 2791.87 2788.29 2784.42 2779.92 2775.29 2770.26 2762.72 2756.42 2751.02 2746.65 2741.33 2735.56 2730.15 2724.86 2720.06 2717.12 2716.22 2716.66 2718.76 2721.08 2723.59 2726.45 2730.10 2735.04 2742.95 2748.98 2755.39 2764.19 2771.11 2777.27 2782.81 2786.86 2790.69 2794.76 2798.22 2801.03 2802.86 2803.97 2804.80 2805.37 2805.89 2806.40 2806.88 2807.24 2807.82 2808.74 2812.66 2817.94 2821.30
 2809.13 2808.60 2808.34 2808.41 2808.72 2809.03 2809.31 2809.42 2809.46 2809.45 2808.94 2807.99 2806.61 2804.34 2801.67 2798.60 2794.53 2790.14 2785.49 2780.43 2775.44 2770.23 2762.83 2756.59 2751.21 2746.81 2741.51 2735.81 2730.66 2725.69 2721.16 2718.28 2717.90 2719.00 2721.52 2724.25 2727.06 2729.89 2733.43 2738.17 2745.77 2751.82 2758.37 2767.50 2773.88 2779.45 2784.86 2789.83 2794.59 2799.10 2802.52 2805.28 2807.22 2808.56 2809.66 2810.54 2811.25 2811.93 2812.57 2813.05 2813.69 2814.57 2818.23 2823.18 2826.36
 2814.70 2814.60 2814.63 2814.78 2815.15 2815.44 2815.62 2815.45 2815.16 2814.75 2814.07 2812.93 2811.33 2808.35 2804.80 2800.73 2795.74 2790.81 2785.91 2780.55 2775.21 2769.70 2762.71 2756.69 2751.39 2746.88 2741.76 2736.37 2731.47 2726.87 2722.65 2719.42 2718.64 2719.67 2723.50 2727.25 2730.92 2734.39 2737.94 2742.19 2748.44 2754.81 2761.67 2769.74 2775.72 2781.26 2787.12 2793.35 2799.19 2803.99 2807.02 2809.50 2811.64 2813.37 2814.95 2816.37 2817.14 2817.85 2818.61 2819.37 2820.27 2821.36 2824.57 2828.59 2831.01
 2820.41 2820.61 2820.83 2821.02 2821.33 2821.53 2821.59 2821.25 2820.72 2819.99 2819.00 2817.51 2815.49 2811.80 2807.39 2802.34 2796.72 2791.41 2786.29 2780.66 2774.95 2769.10 2762.54 2756.75 2751.53 2746.95 2742.00 2736.93 2732.26 2727.98 2724.06 2720.85 2720.38 2721.90 2726.38 2731.03 2735.59 2739.51 2743.06 2746.78 2751.48 2757.68 2764.49 2771.68 2777.48 2783.13 2789.40 2796.71 2803.37 2808.06 2811.04 2813.57 2815.95 2818.00 2819.88 2821.56 2822.51 2823.45 2824.52 2825.54 2826.62 2827.81 2830.32 2833.38 2835.21
 2826.45 2826.63 2826.80 2826.93 2826.96 2826.93 2826.83 2826.55 2825.98 2825.10 2823.55 2821.39 2818.60 2814.23 2808.99 2803.00 2797.31 2791.88 2786.60 2780.73 2774.63 2768.38 2762.32 2756.76 2751.61 2746.99 2742.25 2737.50 2733.03 2728.99 2725.36 2722.63 2723.33 2726.05 2730.35 2735.70 2741.17 2745.33 2748.82 2751.99 2754.93 2760.43 2766.84 2773.32 2779.15 2785.08 2791.71 2799.92 2807.19 2811.39 2814.62 2817.52 2820.17 2822.47 2824.52 2826.26 2827.49 2828.80 2830.35 2831.60 2832.81 2834.02 2835.66 2837.76 2839.10
 2832.23 2832.38 2832.50 2832.59 2832.49 2832.34 2832.16 2831.83 2831.07 2829.87 2827.54 2824.67 2821.26 2816.45 2810.38 2803.24 2797.56 2792.04 2786.59 2780.48 2774.14 2767.70 2762.06 2756.74 2751.68 2747.03 2742.52 2738.14 2734.02 2730.31 2727.11 2725.42 2727.24 2730.95 2735.48 2741.03 2746.66 2750.97 2754.54 2757.53 2759.50 2763.64 2768.89 2775.30 2781.06 2787.08 2794.27 2802.70 2810.14 2814.63 2818.23 2821.54 2824.65 2827.44 2829.97 2832.08 2833.65 2835.24 2837.02 2838.56 2839.95 2841.16 2842.37 2843.77 2844.60
 2837.54 2837.66 2837.75 2837.82 2837.86 2837.80 2837.62 2837.07 2835.93 2834.15 2830.71 2827.08 2823.29 2818.38 2811.48 2802.90 2797.39 2791.82 2786.17 2779.86 2773.45 2767.07 2761.76 2756.67 2751.75 2747.07 2742.81 2738.86 2735.23 2731.94 2729.30 2729.15 2732.02 2736.53 2741.65 2746.94 2752.09 2756.46 2760.22 2763.32 2764.96 2767.20 2770.72 2777.51 2783.13 2789.12 2797.02 2805.18 2812.52 2817.79 2821.86 2825.61 2829.27 2832.72 2835.87 2838.55 2840.48 2842.30 2844.14 2845.98 2847.57 2848.77 2849.75 2850.57 2850.89
 2842.68 2842.77 2842.78 2842.72 2842.65 2842.46 2842.14 2841.27 2839.71 2837.39 2833.00 2828.58 2824.15 2818.44 2811.02 2802.16 2796.70 2791.12 2785.40 2778.96 2772.64 2766.49 2761.36 2756.48 2751.78 2747.21 2743.16 2739.51 2736.22 2733.16 2730.90 2732.48 2736.26 2741.33 2747.29 2752.66 2757.55 2761.56 2765.23 2768.41 2770.38 2772.42 2775.36 2780.98 2785.78 2791.41 2799.95 2807.80 2814.93 2820.82 2825.64 2830.04 2834.14 2837.79 2841.18 2844.26 2846.74 2848.98 2850.98 2852.84 2854.45 2855.68 2856.75 2857.65 2858.01
 2847.59 2847.66 2847.55 2847.24 2846.76 2846.21 2845.58 2844.32 2842.31 2839.50 2834.37 2829.13 2823.82 2816.65 2809.02 2801.04 2795.53 2789.96 2784.29 2777.83 2771.72 2765.94 2760.88 2756.19 2751.78 2747.43 2743.58 2740.11 2737.07 2734.09 2732.09 2735.55 2740.13 2745.61 2752.57 2758.27 2763.05 2766.43 2769.83 2773.09 2775.78 2778.57 2781.57 2785.14 2788.75 2793.82 2802.96 2810.48 2817.36 2823.80 2829.47 2834.64 2839.12 2842.78 2846.24 2849.65 2852.77 2855.52 2857.70 2859.48 2861.04 2862.34 2863.61 2864.83 2865.40
 2852.15 2852.12 2851.86 2851.33 2850.25 2849.13 2848.00 2846.11 2843.46 2839.98 2834.27 2828.40 2822.39 2814.01 2806.42 2799.64 2794.28 2788.80 2783.18 2776.75 2770.88 2765.47 2760.56 2756.11 2751.98 2747.85 2744.26 2741.06 2738.20 2736.09 2735.40 2740.65 2746.35 2752.47 2759.46 2764.76 2768.91 2771.52 2774.53 2777.73 2780.94 2784.40 2788.07 2792.12 2795.93 2800.59 2807.85 2814.50 2820.99 2827.53 2833.52 2838.86 2843.05 2846.84 2850.61 2854.52 2857.86 2860.68 2862.76 2864.29 2865.67 2866.94 2868.23 2869.52 2870.15
 2856.37 2856.18 2855.74 2855.03 2853.19 2851.33 2849.54 2846.85 2843.41 2839.13 2833.02 2826.67 2820.12 2810.74 2803.38 2798.04 2792.97 2787.65 2782.06 2775.73 2770.09 2765.04 2760.34 2756.14 2752.29 2748.40 2745.09 2742.20 2739.48 2738.63 2739.81 2746.79 2753.74 2760.60 2767.11 2771.67 2774.93 2776.70 2779.28 2782.35 2785.99 2790.09 2794.66 2800.16 2804.70 2808.97 2813.44 2818.98 2825.02 2831.51 2837.64 2842.97 2846.68 2850.63 2854.78 2859.23 2862.69 2865.47 2867.39 2868.64 2869.82 2871.04 2872.34 2873.66 2874.33
 2860.42 2859.92 2859.09 2857.86 2855.48 2852.92 2850.23 2846.70 2842.40 2837.27 2830.88 2824.04 2816.74 2808.12 2801.45 2796.74 2791.78 2786.53 2780.98 2774.81 2769.41 2764.67 2760.27 2756.33 2752.75 2749.19 2746.20 2743.61 2741.21 2742.17 2745.83 2753.57 2760.58 2767.06 2772.88 2777.74 2781.79 2784.31 2786.71 2789.26 2792.66 2797.31 2802.53 2807.93 2812.09 2815.74 2819.16 2823.78 2829.13 2835.41 2840.97 2845.90 2849.83 2854.45 2859.01 2863.11 2866.08 2868.55 2870.54 2872.00 2873.22 2874.20 2875.56 2876.95 2877.64
 2864.36 2863.45 2862.06 2860.09 2857.34 2854.13 2850.40 2845.98 2840.82 2834.80 2828.23 2820.90 2812.74 2805.83 2800.12 2795.59 2790.65 2785.43 2779.92 2773.94 2768.78 2764.34 2760.26 2756.59 2753.26 2750.07 2747.41 2745.13 2743.09 2746.06 2752.43 2760.58 2767.25 2772.96 2778.02 2783.52 2788.90 2792.64 2794.95 2796.85 2799.80 2804.94 2810.73 2815.63 2819.14 2822.10 2824.90 2828.66 2833.26 2839.30 2844.15 2848.60 2852.89 2858.26 2863.26 2866.86 2869.24 2871.36 2873.47 2875.20 2876.53 2877.24 2878.66 2880.13 2880.84
 2867.36 2866.10 2864.09 2861.14 2857.60 2853.53 2848.80 2843.79 2838.22 2831.99 2825.05 2817.33 2808.75 2803.36 2798.60 2794.42 2789.30 2784.06 2778.70 2773.01 2768.07 2763.80 2760.12 2756.71 2753.53 2750.47 2747.82 2745.76 2746.50 2750.97 2757.89 2765.17 2771.37 2776.93 2782.40 2788.69 2795.02 2799.46 2802.33 2804.60 2807.38 2812.12 2817.51 2822.27 2825.34 2827.73 2829.94 2832.91 2836.63 2841.72 2846.39 2850.88 2855.20 2860.69 2865.65 2868.80 2871.27 2873.49 2875.48 2877.26 2878.72 2879.69 2880.87 2882.23 2883.03
 2869.86 2868.30 2865.64 2861.60 2857.09 2852.08 2846.41 2840.93 2835.17 2829.03 2821.66 2813.59 2804.77 2800.80 2797.00 2793.23 2787.87 2782.60 2777.42 2772.06 2767.33 2763.21 2759.93 2756.79 2753.74 2750.73 2748.02 2746.13 2750.26 2756.15 2763.07 2769.20 2774.91 2780.47 2786.61 2793.73 2800.94 2805.98 2809.55 2812.38 2815.03 2819.23 2824.05 2828.75 2831.42 2833.25 2834.89 2837.09 2839.91 2843.98 2848.53 2853.12 2857.44 2862.99 2867.89 2870.61 2873.22 2875.57 2877.43 2879.23 2880.83 2882.08 2883.04 2884.28 2885.16
 2870.31 2868.18 2864.94 2860.28 2855.01 2849.45 2843.58 2838.11 2832.22 2825.73 2816.86 2808.86 2802.10 2798.40 2794.43 2790.04 2784.98 2780.06 2775.28 2770.35 2765.86 2761.80 2758.71 2755.95 2753.51 2751.83 2750.93 2751.04 2755.64 2760.98 2766.79 2772.49 2778.21 2784.10 2790.84 2798.23 2805.59 2810.88 2814.55 2817.42 2820.22 2824.23 2828.74 2833.17 2835.86 2837.78 2839.41 2841.22 2843.45 2846.73 2850.64 2854.72 2858.75 2863.15 2867.58 2871.90 2875.02 2877.47 2879.10 2880.71 2882.22 2883.55 2884.68 2885.95 2886.73
 2870.01 2867.22 2863.43 2858.35 2852.40 2846.44 2840.60 2835.29 2829.31 2822.34 2811.67 2803.84 2799.76 2796.05 2791.61 2786.36 2781.74 2777.27 2772.95 2768.47 2764.22 2760.23 2757.29 2754.95 2753.19 2753.06 2754.27 2756.70 2761.27 2765.77 2770.30 2775.68 2781.49 2787.74 2795.06 2802.67 2810.10 2815.62 2819.35 2822.21 2825.21 2829.07 2833.30 2837.47 2840.23 2842.30 2843.94 2845.37 2847.01 2849.51 2852.78 2856.36 2860.09 2863.43 2867.43 2873.23 2876.80 2879.32 2880.71 2882.12 2883.51 2884.89 2886.13 2887.39 2888.06
 2868.85 2865.55 2861.42 2856.24 2849.70 2843.50 2838.10 2832.28 2825.16 2816.30 2807.69 2801.30 2797.62 2793.53 2788.89 2783.67 2779.25 2774.94 2770.72 2766.64 2762.51 2758.38 2756.34 2755.09 2754.62 2755.97 2758.35 2761.61 2765.88 2770.04 2774.25 2779.66 2785.48 2791.70 2798.92 2806.56 2813.93 2818.37 2821.83 2824.88 2828.28 2832.50 2837.14 2841.93 2845.70 2848.54 2849.60 2850.21 2850.94 2852.49 2855.38 2858.71 2862.06 2865.68 2869.87 2875.25 2878.38 2880.53 2881.75 2882.91 2884.01 2885.05 2885.98 2886.95 2887.48
 2867.48 2863.71 2859.29 2854.09 2846.98 2840.57 2835.69 2829.24 2820.80 2809.79 2803.89 2799.19 2795.51 2790.99 2786.19 2781.11 2776.86 2772.66 2768.49 2764.82 2760.79 2756.50 2755.42 2755.32 2756.18 2759.00 2762.48 2766.48 2770.44 2774.30 2778.26 2783.73 2789.56 2795.73 2802.83 2810.44 2817.69 2821.08 2824.29 2827.52 2831.31 2835.87 2840.87 2846.23 2850.85 2854.33 2854.90 2854.83 2854.78 2855.53 2858.03 2861.08 2864.06 2867.89 2872.19 2877.04 2879.72 2881.52 2882.56 2883.46 2884.28 2885.00 2885.63 2886.27 2886.62
 2865.13 2861.28 2856.57 2850.63 2844.12 2838.15 2833.17 2825.82 2817.09 2806.79 2801.72 2797.48 2793.75 2789.12 2784.57 2780.19 2776.90 2773.27 2769.25 2767.22 2764.46 2761.04 2759.81 2759.89 2761.21 2764.09 2767.71 2771.90 2775.57 2779.50 2783.76 2789.31 2795.10 2801.19 2808.26 2814.55 2820.03 2823.46 2826.77 2830.11 2833.98 2838.50 2843.46 2848.91 2852.93 2855.85 2857.01 2857.50 2857.93 2859.03 2861.08 2863.54 2866.27 2869.93 2873.80 2877.51 2879.78 2881.35 2882.14 2882.81 2883.43 2884.00 2884.31 2884.51 2884.54
 2862.65 2858.76 2853.78 2847.01 2841.23 2835.79 2830.64 2822.38 2813.44 2804.08 2799.68 2795.80 2792.03 2787.31 2783.06 2779.44 2777.13 2774.10 2770.25 2769.80 2768.30 2765.78 2764.46 2764.74 2766.50 2769.41 2773.14 2777.46 2780.85 2784.83 2789.36 2794.92 2800.63 2806.56 2813.43 2818.46 2822.33 2825.78 2829.17 2832.62 2836.52 2840.96 2845.80 2851.26 2854.73 2857.12 2858.72 2859.69 2860.58 2862.02 2863.74 2865.72 2868.17 2871.51 2874.85 2877.51 2879.33 2880.63 2881.24 2881.76 2882.25 2882.71 2882.68 2882.44 2882.20
 2859.39 2855.42 2850.46 2844.12 2838.69 2833.15 2827.21 2819.74 2812.23 2804.91 2800.02 2795.64 2791.64 2787.87 2784.73 2782.32 2780.60 2777.99 2774.35 2773.77 2772.77 2771.32 2771.93 2773.21 2775.13 2777.79 2780.96 2784.52 2787.76 2791.54 2795.80 2800.84 2806.01 2811.27 2816.53 2820.77 2824.35 2827.68 2831.11 2834.62 2838.33 2842.42 2846.84 2851.85 2855.05 2857.23 2858.59 2859.80 2861.07 2862.83 2864.74 2866.74 2868.84 2871.34 2873.80 2875.85 2877.12 2878.07 2878.78 2879.45 2880.06 2880.52 2880.10 2879.47 2879.13
 2856.03 2852.00 2847.09 2841.23 2836.13 2830.50 2823.80 2817.19 2811.11 2805.78 2800.51 2795.71 2791.53 2788.68 2786.58 2785.32 2784.20 2782.10 2778.87 2778.27 2777.78 2777.36 2779.54 2781.61 2783.59 2785.98 2788.62 2791.47 2794.53 2798.07 2802.03 2806.54 2811.10 2815.61 2819.42 2822.95 2826.30 2829.48 2832.90 2836.43 2839.94 2843.69 2847.66 2852.13 2855.03 2857.01 2858.17 2859.52 2861.06 2862.98 2864.99 2866.99 2868.87 2870.65 2872.30 2873.71 2874.52 2875.17 2875.87 2876.53 2877.09 2877.45 2876.81 2875.99 2875.61
 2850.04 2846.89 2842.93 2837.94 2833.03 2827.54 2821.04 2816.02 2811.39 2807.03 2802.68 2798.53 2794.63 2792.25 2790.54 2789.53 2789.01 2788.13 2786.82 2786.88 2786.95 2786.99 2788.25 2789.55 2790.90 2793.05 2795.36 2797.80 2800.55 2803.72 2807.24 2811.18 2814.85 2818.26 2821.33 2824.58 2827.90 2830.90 2834.14 2837.50 2840.82 2844.25 2847.75 2851.35 2853.90 2855.78 2856.84 2858.14 2859.60 2861.31 2863.20 2865.18 2867.23 2868.62 2869.68 2870.44 2870.98 2871.46 2871.94 2872.27 2872.48 2872.50 2872.02 2871.45 2871.17
 2843.87 2841.54 2838.49 2834.38 2829.75 2824.54 2818.46 2814.93 2811.72 2808.43 2805.09 2801.73 2798.32 2796.45 2795.14 2794.38 2794.30 2794.36 2794.53 2794.99 2795.42 2795.80 2796.34 2797.05 2797.95 2799.90 2801.93 2804.03 2806.44 2809.17 2812.18 2815.42 2818.23 2820.73 2823.17 2826.07 2829.21 2832.04 2835.07 2838.20 2841.27 2844.30 2847.27 2850.00 2852.16 2853.89 2854.95 2856.23 2857.63 2859.12 2860.80 2862.58 2864.46 2865.52 2866.20 2866.57 2866.96 2867.33 2867.63 2867.72 2867.68 2867.46 2867.06 2866.61 2866.38
 2836.02 2834.11 2831.77 2828.68 2825.12 2821.30 2817.17 2814.56 2812.45 2810.77 2808.95 2807.11 2805.23 2803.95 2802.97 2802.32 2801.89 2801.52 2801.20 2800.97 2800.99 2801.27 2801.97 2802.90 2804.07 2805.96 2807.90 2809.89 2811.88 2814.03 2816.30 2818.43 2820.53 2822.62 2824.78 2827.17 2829.74 2832.44 2835.21 2838.00 2840.63 2843.12 2845.46 2847.36 2849.05 2850.59 2851.86 2853.22 2854.61 2855.92 2857.21 2858.46 2859.61 2860.47 2861.16 2861.66 2862.11 2862.48 2862.69 2862.70 2862.59 2862.30 2861.83 2861.32 2861.07
 2828.19 2826.64 2824.92 2822.80 2820.39 2817.96 2815.57 2814.24 2813.56 2813.66 2813.16 2812.46 2811.57 2810.74 2810.01 2809.40 2808.66 2807.90 2807.13 2806.41 2806.17 2806.46 2807.36 2808.52 2809.92 2811.60 2813.33 2815.08 2816.60 2818.10 2819.56 2820.77 2822.22 2823.86 2825.75 2827.71 2829.78 2832.35 2834.89 2837.39 2839.61 2841.60 2843.37 2844.63 2845.92 2847.21 2848.49 2849.78 2851.05 2852.17 2853.15 2854.01 2854.67 2855.36 2856.03 2856.60 2857.09 2857.48 2857.67 2857.69 2857.59 2857.33 2856.92 2856.50 2856.29
 2820.49 2818.95 2817.53 2816.17 2815.27 2814.26 2812.84 2814.17 2816.19 2818.63 2818.65 2817.77 2816.02 2815.20 2814.49 2813.78 2812.87 2811.90 2810.86 2810.31 2810.29 2810.87 2812.10 2813.52 2815.12 2816.25 2817.45 2818.70 2819.69 2820.42 2820.93 2821.68 2822.64 2823.80 2825.46 2827.15 2828.92 2831.34 2833.74 2836.06 2837.93 2839.50 2840.81 2841.76 2842.74 2843.72 2844.70 2845.69 2846.69 2847.65 2848.42 2849.07 2849.63 2850.20 2850.76 2851.33 2851.85 2852.29 2852.55 2852.68 2852.70 2852.58 2852.39 2852.19 2852.09
 2813.16 2811.81 2810.77 2810.13 2810.48 2810.62 2809.96 2813.35 2817.62 2822.23 2822.82 2821.92 2819.54 2818.51 2817.77 2817.25 2816.28 2815.16 2813.87 2813.37 2813.47 2814.20 2815.43 2816.81 2818.35 2818.93 2819.69 2820.60 2821.11 2821.28 2821.19 2821.53 2822.04 2822.74 2824.05 2825.52 2827.20 2829.80 2832.24 2834.49 2836.04 2837.25 2838.23 2838.98 2839.74 2840.49 2841.22 2841.93 2842.64 2843.34 2843.86 2844.30 2844.73 2845.19 2845.66 2846.19 2846.72 2847.20 2847.56 2847.82 2848.01 2848.08 2848.13 2848.17 2848.19
 2806.97 2806.34 2805.93 2805.81 2806.66 2807.19 2806.66 2810.61 2815.96 2822.39 2823.77 2823.26 2820.90 2819.19 2818.38 2818.74 2817.99 2816.88 2815.42 2814.79 2814.80 2815.50 2816.11 2816.96 2818.05 2818.19 2818.71 2819.60 2819.76 2819.79 2819.70 2819.76 2819.93 2820.22 2821.01 2822.35 2824.25 2827.53 2830.30 2832.60 2833.85 2834.83 2835.62 2836.31 2836.95 2837.55 2838.10 2838.55 2838.93 2839.24 2839.48 2839.71 2839.98 2840.33 2840.73 2841.17 2841.69 2842.21 2842.66 2843.09 2843.48 2843.81 2844.12 2844.40 2844.53
 2801.06 2801.25 2801.60 2802.00 2803.19 2804.06 2803.98 2807.92 2813.36 2820.18 2822.15 2822.23 2820.44 2818.73 2817.99 2818.65 2818.06 2817.06 2815.69 2814.99 2814.85 2815.32 2815.50 2815.89 2816.52 2816.50 2816.82 2817.48 2817.40 2817.30 2817.18 2817.07 2817.06 2817.18 2817.76 2819.05 2821.01 2824.41 2827.30 2829.70 2830.96 2831.91 2832.67 2833.36 2833.94 2834.45 2834.83 2835.07 2835.21 2835.20 2835.17 2835.17 2835.27 2835.55 2835.94 2836.38 2836.91 2837.46 2837.96 2838.52 2839.08 2839.59 2840.04 2840.48 2840.69
 2795.76 2796.99 2798.34 2799.22 2800.40 2801.53 2802.46 2805.34 2809.08 2813.73 2816.01 2817.12 2816.91 2816.35 2816.02 2816.07 2815.58 2814.91 2814.06 2813.40 2813.05 2813.07 2813.10 2813.19 2813.36 2813.58 2813.79 2813.98 2813.79 2813.62 2813.46 2813.32 2813.35 2813.55 2814.30 2815.61 2817.45 2820.45 2823.25 2825.81 2827.39 2828.53 2829.39 2830.15 2830.74 2831.20 2831.43 2831.51 2831.46 2831.19 2830.91 2830.65 2830.58 2830.84 2831.25 2831.76 2832.31 2832.87 2833.39 2834.06 2834.76 2835.39 2835.93 2836.46 2836.75
 2791.37 2793.11 2794.98 2796.28 2797.58 2798.95 2800.50 2802.69 2805.30 2808.48 2810.80 2812.43 2813.11 2813.28 2813.25 2813.01 2812.65 2812.25 2811.81 2811.27 2810.86 2810.61 2810.51 2810.38 2810.22 2810.35 2810.36 2810.22 2809.92 2809.70 2809.54 2809.42 2809.48 2809.74 2810.65 2812.03 2813.83 2816.49 2819.14 2821.69 2823.43 2824.72 2825.69 2826.46 2826.97 2827.28 2827.38 2827.35 2827.22 2826.92 2826.64 2826.38 2826.12 2826.11 2826.22 2826.40 2827.03 2827.91 2829.09 2830.08 2830.94 2831.65 2832.23 2832.80 2833.10
 2788.46 2789.84 2791.45 2793.10 2794.70 2796.30 2797.93 2799.93 2802.19 2804.78 2806.82 2808.30 2808.98 2809.38 2809.54 2809.37 2809.19 2809.03 2808.87 2808.57 2808.24 2807.91 2807.71 2807.45 2807.09 2806.84 2806.56 2806.23 2805.82 2805.56 2805.46 2805.38 2805.49 2805.79 2806.86 2808.33 2810.17 2812.53 2814.98 2817.41 2819.20 2820.60 2821.70 2822.46 2822.82 2822.94 2822.92 2822.82 2822.67 2822.48 2822.37 2822.23 2821.77 2821.37 2820.99 2820.68 2821.39 2822.75 2824.91 2826.32 2827.37 2828.11 2828.72 2829.29 2829.58
 2785.08 2786.34 2787.86 2789.61 2791.33 2793.03 2794.72 2796.55 2798.52 2800.66 2802.45 2803.82 2804.54 2805.03 2805.27 2805.17 2805.06 2804.98 2804.94 2804.73 2804.44 2804.07 2803.75 2803.39 2802.98 2802.59 2802.19 2801.80 2801.38 2801.21 2801.28 2801.45 2801.83 2802.43 2803.60 2805.03 2806.70 2808.71 2810.75 2812.79 2814.41 2815.70 2816.73 2817.41 2817.70 2817.73 2817.61 2817.46 2817.30 2817.14 2817.05 2816.93 2816.49 2816.10 2815.86 2816.12 2817.34 2819.13 2821.51 2823.10 2824.28 2825.12 2825.78 2826.40 2826.72
 2781.18 2782.58 2784.19 2785.77 2787.42 2789.10 2790.84 2792.54 2794.28 2796.11 2797.71 2799.01 2799.81 2800.27 2800.51 2800.48 2800.35 2800.24 2800.18 2799.98 2799.71 2799.36 2798.90 2798.49 2798.14 2797.79 2797.43 2797.06 2796.72 2796.71 2797.03 2797.58 2798.38 2799.43 2800.66 2801.97 2803.35 2804.95 2806.50 2807.99 2809.33 2810.40 2811.27 2811.85 2812.10 2812.13 2811.91 2811.74 2811.58 2811.42 2811.30 2811.16 2810.82 2810.62 2810.76 2811.98 2813.86 2816.04 2818.39 2820.06 2821.36 2822.29 2823.02 2823.71 2824.06
 2776.37 2777.62 2779.24 2781.02 2782.81 2784.59 2786.30 2787.89 2789.47 2791.08 2792.56 2793.82 2794.71 2795.22 2795.52 2795.59 2795.52 2795.45 2795.40 2795.23 2795.00 2794.70 2794.28 2793.91 2793.61 2793.28 2792.95 2792.62 2792.42 2792.55 2793.00 2793.79 2794.84 2796.12 2797.49 2798.80 2800.09 2801.50 2802.81 2804.02 2805.09 2805.93 2806.57 2806.95 2807.08 2807.03 2806.76 2806.50 2806.22 2805.86 2805.55 2805.30 2805.27 2805.57 2806.33 2808.24 2810.62 2813.13 2815.48 2817.18 2818.52 2819.46 2820.22 2820.95 2821.31
 2770.78 2771.64 2773.23 2775.51 2777.65 2779.62 2781.26 2782.75 2784.22 2785.72 2787.12 2788.36 2789.35 2789.96 2790.38 2790.57 2790.62 2790.63 2790.60 2790.47 2790.30 2790.09 2789.78 2789.49 2789.23 2788.92 2788.62 2788.33 2788.30 2788.54 2789.07 2790.04 2791.25 2792.68 2794.21 2795.60 2796.87 2798.17 2799.33 2800.37 2801.17 2801.74 2802.14 2802.28 2802.26 2802.11 2801.78 2801.41 2800.97 2800.36 2799.80 2799.41 2799.74 2800.63 2802.05 2804.59 2807.43 2810.26 2812.62 2814.34 2815.69 2816.62 2817.42 2818.17 2818.55
 2766.13 2766.35 2767.53 2769.88 2772.19 2774.31 2776.01 2777.48 2778.87 2780.25 2781.58 2782.78 2783.76 2784.43 2784.95 2785.30 2785.51 2785.66 2785.74 2785.63 2785.51 2785.37 2785.16 2784.96 2784.76 2784.46 2784.18 2783.91 2784.00 2784.34 2784.94 2785.99 2787.23 2788.64 2790.22 2791.63 2792.88 2794.18 2795.34 2796.36 2797.19 2797.84 2798.29 2798.08 2797.79 2797.43 2796.94 2796.26 2795.43 2794.36 2793.69 2793.44 2794.24 2795.76 2797.87 2801.03 2804.34 2807.50 2809.87 2811.61 2813.02 2814.15 2815.07 2815.89 2816.28
 2762.08 2761.51 2762.05 2764.16 2766.54 2768.81 2770.64 2772.11 2773.46 2774.73 2775.98 2777.12 2778.06 2778.76 2779.38 2779.91 2780.31 2780.62 2780.85 2780.77 2780.67 2780.62 2780.51 2780.38 2780.24 2779.98 2779.71 2779.45 2779.64 2780.07 2780.74 2781.85 2783.07 2784.42 2786.02 2787.43 2788.67 2790.02 2791.21 2792.26 2793.19 2793.99 2794.57 2793.99 2793.40 2792.81 2792.13 2791.11 2789.85 2788.27 2787.51 2787.45 2788.74 2790.89 2793.69 2797.48 2801.26 2804.75 2807.13 2808.89 2810.38 2811.72 2812.76 2813.66 2814.06
 2758.55 2757.13 2756.86 2758.48 2760.89 2763.34 2765.33 2766.88 2768.27 2769.57 2770.75 2771.80 2772.67 2773.28 2773.80 2774.24 2774.59 2774.88 2775.06 2775.01 2774.98 2775.04 2775.08 2775.11 2775.12 2775.04 2774.97 2774.92 2775.15 2775.62 2776.35 2777.47 2778.65 2779.87 2781.25 2782.51 2783.67 2784.71 2785.66 2786.51 2787.36 2788.12 2788.71 2788.11 2787.45 2786.71 2785.70 2784.49 2783.20 2782.26 2782.09 2782.53 2784.00 2786.61 2789.91 2793.73 2797.40 2800.83 2803.57 2805.83 2807.80 2809.36 2810.59 2811.59 2811.93
 2755.27 2752.98 2751.81 2752.82 2755.24 2757.89 2760.04 2761.69 2763.16 2764.54 2765.64 2766.60 2767.39 2767.86 2768.22 2768.48 2768.72 2768.91 2769.00 2768.99 2769.05 2769.23 2769.44 2769.65 2769.85 2769.99 2770.16 2770.37 2770.63 2771.13 2771.93 2773.05 2774.17 2775.26 2776.38 2777.47 2778.53 2779.23 2779.89 2780.53 2781.26 2781.97 2782.57 2782.01 2781.31 2780.44 2779.11 2777.73 2776.46 2776.25 2776.72 2777.70 2779.33 2782.38 2786.15 2789.97 2793.51 2796.87 2799.96 2802.72 2805.16 2806.94 2808.36 2809.49 2809.78
 2752.07 2748.94 2746.74 2747.10 2749.42 2752.14 2754.34 2756.12 2757.75 2759.30 2760.71 2761.94 2762.87 2763.38 2763.76 2764.07 2764.34 2764.58 2764.78 2764.89 2765.00 2765.13 2765.26 2765.38 2765.49 2765.62 2765.81 2766.09 2766.54 2767.17 2768.01 2768.99 2769.90 2770.75 2771.59 2772.42 2773.24 2773.69 2774.06 2774.38 2774.72 2775.06 2775.33 2774.79 2774.21 2773.57 2772.63 2771.83 2771.26 2771.59 2772.60 2774.14 2776.32 2779.35 2782.84 2786.44 2789.84 2793.09 2796.05 2798.73 2801.22 2803.46 2805.40 2806.98 2807.34
 2748.91 2744.94 2741.67 2741.38 2743.54 2746.30 2748.54 2750.45 2752.25 2754.01 2755.82 2757.41 2758.53 2759.10 2759.54 2759.94 2760.26 2760.58 2760.90 2761.13 2761.28 2761.32 2761.32 2761.31 2761.27 2761.35 2761.53 2761.84 2762.50 2763.27 2764.16 2764.97 2765.67 2766.25 2766.81 2767.37 2767.94 2768.15 2768.26 2768.25 2768.19 2768.16 2768.12 2767.62 2767.18 2766.79 2766.27 2766.06 2766.16 2766.98 2768.50 2770.55 2773.28 2776.30 2779.51 2782.90 2786.17 2789.31 2792.14 2794.76 2797.30 2799.90 2802.28 2804.22 2804.65
 2745.14 2740.79 2736.96 2735.94 2737.38 2739.64 2741.93 2743.97 2745.92 2747.81 2749.56 2751.08 2752.18 2752.98 2753.69 2754.35 2754.91 2755.44 2755.93 2756.34 2756.63 2756.78 2756.81 2756.83 2756.86 2756.95 2757.18 2757.58 2758.44 2759.36 2760.34 2761.18 2761.88 2762.44 2762.96 2763.48 2763.97 2764.04 2763.85 2763.45 2763.28 2763.14 2763.02 2762.75 2762.53 2762.35 2762.16 2762.16 2762.37 2763.18 2764.64 2766.66 2769.86 2772.88 2775.86 2779.24 2782.46 2785.53 2788.31 2790.97 2793.53 2795.89 2798.07 2799.89 2800.34
 2741.24 2736.61 2732.32 2730.57 2731.18 2732.83 2735.19 2737.36 2739.45 2741.47 2743.11 2744.50 2745.56 2746.62 2747.64 2748.59 2749.42 2750.18 2750.86 2751.45 2751.91 2752.19 2752.25 2752.32 2752.43 2752.54 2752.81 2753.32 2754.35 2755.41 2756.48 2757.35 2758.07 2758.63 2759.14 2759.61 2760.04 2759.97 2759.52 2758.74 2758.41 2758.12 2757.87 2757.81 2757.79 2757.81 2757.92 2758.11 2758.41 2759.22 2760.61 2762.61 2766.23 2769.32 2772.22 2775.60 2778.80 2781.85 2784.59 2787.28 2789.86 2792.08 2794.08 2795.75 2796.17
 2738.69 2734.60 2730.76 2728.08 2726.46 2725.90 2727.39 2729.38 2731.55 2733.77 2735.73 2737.46 2738.84 2740.11 2741.31 2742.42 2743.40 2744.35 2745.27 2746.15 2746.85 2747.30 2747.47 2747.63 2747.82 2747.99 2748.27 2748.71 2749.53 2750.45 2751.47 2752.58 2753.69 2754.80 2755.52 2756.12 2756.60 2756.45 2755.88 2754.92 2753.98 2753.11 2752.34 2752.37 2752.46 2752.59 2752.78 2753.07 2753.46 2754.21 2755.62 2757.70 2761.44 2765.04 2768.57 2772.00 2775.37 2778.61 2781.37 2784.02 2786.60 2789.09 2790.97 2792.32 2792.52
 2736.30 2732.81 2729.53 2725.87 2721.90 2718.96 2719.53 2721.33 2723.56 2725.98 2728.29 2730.39 2732.08 2733.55 2734.92 2736.19 2737.34 2738.49 2739.68 2740.87 2741.86 2742.49 2742.77 2743.00 2743.23 2743.45 2743.72 2744.07 2744.69 2745.49 2746.49 2747.86 2749.36 2751.00 2751.96 2752.70 2753.24 2753.00 2752.31 2751.19 2749.70 2748.33 2747.14 2747.19 2747.33 2747.54 2747.75 2748.08 2748.51 2749.20 2750.56 2752.62 2756.59 2760.82 2765.08 2768.59 2772.09 2775.46 2778.31 2781.00 2783.63 2786.30 2787.97 2788.89 2788.76
 2738.92 2735.78 2732.58 2728.97 2724.38 2720.13 2718.06 2716.58 2716.14 2718.08 2720.53 2722.88 2724.66 2726.15 2727.61 2729.15 2730.76 2732.40 2734.06 2736.10 2737.80 2738.77 2738.91 2738.92 2738.94 2738.96 2739.04 2739.19 2739.67 2740.48 2741.71 2743.54 2745.44 2747.39 2748.78 2749.78 2750.39 2749.98 2749.14 2747.87 2746.13 2744.64 2743.42 2743.21 2743.13 2743.16 2743.14 2743.28 2743.57 2744.20 2745.26 2746.98 2751.59 2756.79 2762.08 2765.75 2769.24 2772.60 2775.68 2778.64 2781.48 2784.02 2785.24 2785.44 2784.71
 2741.68 2738.84 2735.70 2732.08 2726.90 2721.41 2716.82 2712.35 2709.42 2710.70 2713.05 2715.46 2717.29 2718.82 2720.37 2722.08 2724.08 2726.20 2728.46 2731.23 2733.50 2734.71 2734.68 2734.45 2734.20 2734.05 2734.06 2734.31 2734.87 2735.82 2737.22 2739.46 2741.72 2743.94 2745.64 2746.84 2747.49 2746.89 2745.88 2744.46 2742.58 2741.03 2739.78 2739.31 2739.01 2738.85 2738.60 2738.50 2738.55 2739.18 2740.22 2741.94 2746.97 2752.89 2759.00 2762.95 2766.55 2769.93 2773.19 2776.33 2779.26 2781.58 2782.19 2781.50 2780.10
 2744.37 2741.62 2738.44 2734.13 2728.93 2723.45 2718.21 2713.69 2710.16 2708.72 2708.33 2708.72 2710.35 2712.09 2713.68 2714.85 2716.72 2719.31 2723.05 2725.78 2727.75 2728.67 2728.36 2727.83 2727.25 2727.04 2727.64 2729.36 2731.05 2732.60 2733.95 2736.41 2738.82 2741.06 2742.71 2743.83 2744.39 2743.56 2742.34 2740.75 2739.08 2737.62 2736.37 2735.68 2735.15 2734.72 2734.25 2733.75 2733.34 2734.12 2735.79 2738.36 2743.23 2749.27 2755.74 2760.25 2764.16 2767.69 2771.00 2774.10 2776.91 2778.82 2778.55 2776.66 2774.47
 2747.00 2744.32 2741.11 2736.26 2731.06 2725.62 2719.86 2715.29 2711.20 2707.35 2704.30 2702.57 2703.70 2705.51 2707.15 2707.97 2709.70 2712.54 2717.23 2719.96 2721.77 2722.53 2722.13 2721.53 2720.89 2721.02 2722.32 2725.23 2727.84 2729.91 2731.30 2733.80 2736.18 2738.29 2739.74 2740.67 2741.05 2740.06 2738.74 2737.12 2735.58 2734.16 2732.87 2731.91 2731.07 2730.34 2729.62 2728.81 2728.06 2728.79 2731.10 2734.66 2739.63 2745.73 2752.32 2757.44 2761.69 2765.39 2768.79 2771.93 2774.66 2776.06 2775.08 2772.33 2769.62
 2749.12 2746.39 2743.28 2738.84 2733.84 2728.55 2723.04 2718.26 2713.70 2708.97 2703.61 2699.30 2698.42 2699.60 2701.23 2702.54 2704.05 2706.28 2709.92 2712.77 2714.91 2716.02 2716.20 2716.28 2716.44 2718.06 2720.42 2723.60 2726.43 2728.72 2730.34 2732.38 2734.23 2735.79 2736.68 2737.12 2737.09 2736.17 2735.03 2733.67 2732.09 2730.60 2729.19 2727.82 2726.57 2725.43 2724.47 2723.50 2722.64 2723.02 2725.94 2730.74 2736.24 2742.30 2748.65 2754.46 2759.09 2762.99 2766.57 2769.84 2772.55 2773.32 2771.84 2768.69 2765.79
 2751.00 2748.18 2745.13 2741.12 2736.36 2731.30 2726.21 2721.36 2716.40 2710.81 2703.67 2697.28 2694.27 2694.20 2695.22 2696.94 2698.36 2700.21 2703.15 2706.07 2708.48 2709.88 2710.62 2711.34 2712.23 2715.39 2718.89 2722.40 2725.29 2727.69 2729.47 2731.11 2732.50 2733.57 2734.03 2734.12 2733.81 2732.90 2731.83 2730.59 2728.79 2727.08 2725.45 2723.72 2722.07 2720.51 2719.28 2718.37 2717.80 2718.59 2721.98 2727.28 2733.00 2738.93 2744.96 2750.84 2755.77 2760.05 2763.79 2767.01 2769.53 2770.01 2767.84 2763.87 2760.76
 2751.86 2748.81 2745.70 2742.22 2737.89 2733.36 2729.39 2724.87 2719.74 2713.31 2706.05 2699.04 2693.49 2690.26 2688.96 2690.84 2692.56 2694.66 2697.71 2700.65 2703.10 2704.62 2705.84 2707.12 2708.59 2713.37 2718.13 2722.08 2724.73 2726.96 2728.78 2730.11 2731.15 2731.88 2732.11 2732.04 2731.65 2730.66 2729.48 2728.11 2725.77 2723.61 2721.62 2719.59 2717.56 2715.57 2714.06 2713.46 2713.74 2715.93 2719.60 2724.41 2729.96 2735.60 2741.26 2746.51 2751.62 2756.51 2760.41 2763.38 2765.55 2766.12 2763.06 2757.88 2754.54
 2752.29 2749.12 2745.98 2742.77 2738.65 2734.38 2730.98 2726.63 2721.42 2714.57 2707.24 2699.93 2693.12 2688.30 2685.83 2687.80 2689.65 2691.88 2694.99 2697.94 2700.41 2701.98 2703.44 2705.00 2706.77 2712.35 2717.75 2721.91 2724.45 2726.59 2728.44 2729.61 2730.48 2731.03 2731.15 2731.01 2730.58 2729.55 2728.31 2726.86 2724.27 2721.88 2719.71 2717.52 2715.31 2713.10 2711.44 2711.00 2711.71 2714.59 2718.40 2722.98 2728.43 2733.94 2739.43 2744.37 2749.55 2754.69 2758.62 2761.44 2763.37 2763.88 2760.41 2754.74 2751.33
